# .PCD v0.7 - Point Cloud Data file format
VERSION 0.7
FIELDS x y z
SIZE 4 4 4
TYPE F F F
COUNT 1 1 1
WIDTH 1616
HEIGHT 1
VIEWPOINT 0 0 0 1 0 0 0
POINTS 1616
DATA ascii
5.8204718 8.2477303 1.0674578
1.372066 8.3358917 1.0640018
-1.620622 8.4377289 1.0603173
-0.14491856 8.4377289 1.0678887
0.09155488 8.4377289 1.0697799
6.1208563 8.4409971 1.0619916
5.8585167 8.47472 1.0685279
6.1130667 8.5778999 1.0698946
6.1081629 8.6640882 1.0684117
6.0994802 8.8166857 1.0679004
5.8345509 8.8959112 1.0604706
5.8311443 8.9557867 1.0657696
6.0850439 9.070384 1.0668232
-2.2279339 9.144618 1.0681738
6.0704336 9.3271542 1.0663338
5.8057251 9.4025288 1.0639937
-2.2279339 9.4980268 1.0637732
6.0570469 9.5624189 1.066692
6.0564165 9.5735216 1.0642364
5.7160563 9.9605417 1.0689353
6.0519104 10.004766 1.0682099
6.0153217 10.295749 1.0601441
6.0116215 10.360782 1.0629508
1.4920659 10.413024 1.0663388
-1.987934 10.813462 1.0681652
5.4844599 10.823918 1.0690473
5.7248483 10.82391 1.0696008
5.9797096 10.921605 1.0673952
5.7137122 11.019624 1.0619121
5.469502 11.0868 1.0637938
5.9577923 11.306797 1.068342
5.6931028 11.381825 1.0619148
5.6811123 11.592554 1.0671879
5.6766949 11.670195 1.0601106
5.9557409 11.694921 1.06147
5.4233885 11.897213 1.06376
-2.2279339 12.081964 1.0651858
-2.2279339 12.12473 1.0642138
5.9129472 12.447007 1.0620081
5.6267385 12.548157 1.0629106
5.3843732 12.582896 1.0677111
5.9026866 12.627329 1.0670466
5.6194739 12.67584 1.0630256
0.0014982224 12.75773 1.0681083
1.3767958 12.75773 1.0655365
-1.987934 12.79536 1.0613276
2.9170661 12.809008 1.0623487
2.1870661 12.824537 1.0640616
-1.9879341 12.86331 1.060423
-2.2279339 12.992929 1.0690935
-1.6021155 12.997729 1.061733
0.43419692 12.997728 1.0655836
1.1681309 12.997729 1.0683868
2.0879965 12.997729 1.0650578
3.1748281 12.997729 1.0632957
4.3578987 12.997729 1.0643145
-2.3872845 -1.722271 1.0744406
-2.159611 -1.7222711 1.0705001
-0.74203134 -1.722271 1.0706772
-0.61566937 -1.722271 1.0726763
2.3514183 -1.722271 1.0774124
2.5325217 -1.722271 1.0706246
2.6910276 -1.722271 1.0795608
3.5714169 -1.722271 1.0742502
5.0748725 -1.722271 1.0762426
-2.1977029 -1.702271 1.0769002
-1.3063666 -1.702271 1.0744357
-0.72566271 -1.702271 1.0759054
-0.35454845 -1.702271 1.073339
1.3208444 -1.702271 1.0761924
1.861341 -1.702271 1.0795302
2.6359477 -1.702271 1.0717678
4.3656859 -1.702271 1.0781522
4.4590349 -1.702271 1.0726779
4.7815213 -1.702271 1.0727121
5.7108078 -1.702271 1.0744219
6.6966801 -1.6789168 1.0756024
5.151679 -1.6493304 1.0746334
-2.2279341 -1.633455 1.070153
6.4322577 -1.6085882 1.0716504
5.2816792 -1.5802722 1.078943
6.6898394 -1.5586916 1.0714064
6.6860576 -1.492226 1.0735527
-1.8317094 -1.442271 1.0732372
-1.5289721 -1.442271 1.073804
-1.1512884 -1.442271 1.0702317
-0.90750504 -1.442271 1.0739348
0.60534537 -1.442271 1.0743386
1.3123978 -1.442271 1.0776631
2.1381521 -1.442271 1.0728968
2.9991848 -1.442271 1.0763744
3.4110401 -1.442271 1.0795333
3.9057243 -1.442271 1.0750016
4.7149782 -1.442271 1.0771815
5.3633671 -1.442271 1.0717099
6.2914681 -1.442271 1.0738287
6.3670807 -1.442271 1.0702987
-1.5568075 -1.202271 1.0767936
0.11428078 -1.202271 1.0766715
0.47684339 -1.202271 1.0792724
3.3801224 -1.202271 1.0753596
4.7816792 -1.158097 1.0773724
6.3941889 -0.93954861 1.0705032
6.6521144 -0.89569741 1.0797226
6.3896565 -0.85989195 1.0743959
-2.2279339 -0.5302301 1.079917
5.0216789 -0.5004428 1.0747957
6.6205163 -0.34036893 1.0794115
6.6196985 -0.32598945 1.075561
-2.2279339 -0.29329777 1.0740418
-2.2279339 0.10397708 1.0738081
1.4920661 0.17171004 1.0716056
6.5725608 0.50243711 1.0736756
1.372066 0.81197667 1.0798776
1.492066 0.87973958 1.0760746
6.5716491 0.87052679 1.07945
6.5414495 1.049209 1.0763482
6.5258298 1.3237176 1.0770305
1.492066 1.4980741 1.0783145
6.5122414 1.5625291 1.0721014
6.2471018 1.6454577 1.076076
1.492066 1.6713363 1.0738446
-2.2279339 1.7350731 1.074894
-1.987934 1.8397188 1.0781231
4.7816792 1.9048263 1.0791552
6.2292891 1.9585187 1.0799644
-1.4598851 2.027729 1.0709834
-0.62124306 2.027729 1.0733144
0.11674035 2.027729 1.0799253
0.33762872 2.027729 1.0719898
6.4898481 2.3081577 1.0753548
-2.2279339 2.3249731 1.0715518
6.478673 2.5045552 1.0750487
5.0216789 2.5444465 1.0702214
6.1802244 2.8208194 1.0774945
6.4596968 2.8380451 1.0724418
4.7816792 2.8897283 1.0736387
1.4457616 3.0077291 1.0779014
6.4268475 3.0632956 1.0761381
-1.9879339 3.1340005 1.0710318
6.4360456 3.2537155 1.0798955
6.1540365 3.2810626 1.0744265
1.372066 3.4359877 1.0719877
6.1243043 3.8035936 1.0708373
1.372066 3.9539824 1.0762255
-2.2279339 4.1874857 1.0799028
1.4920659 4.2553253 1.0770521
6.349534 4.4220572 1.0738077
4.7816792 4.4579124 1.0797136
5.0216789 4.5080996 1.0710084
1.3931015 4.527729 1.0709713
6.330719 4.752727 1.0700805
-2.2279339 4.794878 1.0738258
6.3184133 4.9689918 1.0743566
-2.2279339 5.1585827 1.0770675
6.3038359 5.2251863 1.0798397
6.3193836 5.3040042 1.0771805
6.2969294 5.3465638 1.072777
-2.2279336 5.3500204 1.0708315
-1.9981987 5.4327288 1.0735706
6.3076248 5.5106702 1.0751146
1.3720659 5.759479 1.0760821
6.0034285 5.9279461 1.0785843
1.4920659 6.0172911 1.0794894
-2.2113869 6.462729 1.0766596
1.372066 6.4890556 1.0740831
-1.9385263 6.6127291 1.0763986
-1.5432516 6.6127291 1.0788412
-0.96901917 6.6127291 1.0727916
-0.70964515 6.6127291 1.0766046
-0.68274528 6.6127291 1.0708762
-1.9879341 6.8437724 1.0728279
-1.9879341 6.9132328 1.0799263
1.372066 6.939558 1.0706235
1.4920659 6.9495783 1.0740886
-1.5514066 6.9777288 1.0724196
-0.16910174 6.9777288 1.0715215
-1.987934 7.066381 1.0792781
-1.4981794 7.0977292 1.0780587
-0.019048512 7.0977287 1.0710117
4.7816792 7.1525707 1.0755208
-2.2279339 7.283402 1.0711669
-2.2279339 7.5008168 1.0787457
5.0216789 7.6683855 1.07794
6.0182333 7.7277288 1.0748103
6.0358582 7.7277288 1.0799013
6.0568781 7.7277288 1.0789533
6.0685081 7.7277288 1.0706565
5.4571867 7.7477288 1.0760618
5.2816792 7.8902168 1.0740702
0.18081027 7.9477291 1.071591
-2.2279339 8.0092659 1.0781627
5.1091514 8.0077295 1.0742458
5.1662426 8.0077295 1.0772431
5.5122094 8.0077295 1.0712283
5.8328261 8.0077295 1.0732671
5.8539891 8.0077295 1.0722495
3.807296 8.067729 1.071617
6.1398287 8.1075802 1.0702019
1.9943175 8.1877289 1.0710784
2.4298906 8.1877289 1.0750523
3.688117 8.1877289 1.0776997
4.479394 8.1877289 1.0790247
4.4961309 8.1877289 1.0736815
0.1654644 8.1977301 1.0701318
6.1297646 8.2844448 1.0742205
5.8620396 8.412818 1.077093
1.272066 8.4208307 1.0740952
6.121706 8.4260693 1.0794535
-1.9331831 8.4377289 1.0745852
-0.97775346 8.4377289 1.0735625
-0.96077281 8.4377289 1.073303
-0.0058939755 8.4377289 1.0749725
-2.2279339 8.4746065 1.0748905
6.1181145 8.4891844 1.0793319
6.1333852 8.5728817 1.0735461
6.1052971 8.7144556 1.0740834
5.8345556 8.8958197 1.0771872
5.8327045 8.9283628 1.0733205
5.8305378 8.9664431 1.0722724
6.086359 9.0472651 1.0702909
-1.987934 9.1029873 1.0762224
6.0975285 9.2030392 1.0710331
6.0753264 9.2411633 1.0740156
6.0702715 9.3300056 1.0776247
6.0580997 9.5439224 1.0704327
1.3739101 10.01773 1.0730957
5.7566385 10.2652 1.0730319
6.0325804 10.344481 1.0742821
5.743947 10.48826 1.0766015
5.5021205 10.513534 1.0709224
1.372066 10.643736 1.075632
-1.987934 10.698718 1.0782292
6.0123835 10.699448 1.0789233
-1.987934 10.850581 1.0744117
5.4813185 10.879124 1.0772626
5.9777746 10.955606 1.0788037
5.7114882 11.058705 1.0783907
1.492066 11.188992 1.0759397
-2.2279339 11.219206 1.0774353
5.7017965 11.229044 1.0755301
-1.987934 11.589082 1.0738915
5.4203658 11.950348 1.072114
5.6542115 12.065334 1.0704999
-2.2279339 12.099102 1.0748988
5.9125648 12.10166 1.0710598
-1.987934 12.152306 1.0787299
5.6385078 12.34132 1.070255
-0.16336572 12.75773 1.0709465
0.29984915 12.75773 1.0789784
0.95986354 12.75773 1.0792763
4.7120056 12.75773 1.0725285
5.2291975 12.75773 1.0780109
-1.987934 12.774578 1.0776498
5.3729148 12.784274 1.0705131
5.3692389 12.848893 1.0773251
-2.2279339 12.862447 1.070237
5.3614426 12.985912 1.07917
-0.00073410571 12.99773 1.0741535
0.60341531 12.99773 1.0718434
0.92373949 12.997729 1.0754368
4.0506349 12.997728 1.0750823
-1.4412366 -1.722271 1.0894663
0.3411743 -1.722271 1.0882783
1.2140018 -1.722271 1.0841509
2.2463765 -1.722271 1.0868613
3.068032 -1.722271 1.0851512
3.6973865 -1.722271 1.0841779
4.440887 -1.722271 1.0880358
4.6372824 -1.722271 1.0880311
5.5849805 -1.722271 1.0865954
6.0893059 -1.722271 1.0897815
-0.45817739 -1.702271 1.0870945
-0.43951514 -1.702271 1.0887027
-0.3509286 -1.702271 1.0833863
0.44209412 -1.7022711 1.0867634
0.99602151 -1.702271 1.0825109
1.3369889 -1.702271 1.082375
3.5906193 -1.702271 1.089632
4.2394099 -1.702271 1.0831815
4.2812324 -1.702271 1.0814106
4.4773097 -1.702271 1.0868146
4.7118855 -1.702271 1.0853189
5.1085219 -1.702271 1.0821151
5.3485713 -1.702271 1.0843196
6.0604267 -1.702271 1.0864847
6.4118686 -1.702271 1.0876009
-0.29573467 -1.6062622 1.0899999
3.9241538 -1.6053782 1.0899999
6.690887 -1.5771042 1.081845
5.3016796 -1.5451379 1.086805
4.0759392 -1.4736917 1.0899999
-2.1722729 -1.442271 1.0839182
-1.775692 -1.442271 1.0879948
-1.4436569 -1.442271 1.0820037
-0.80504042 -1.442271 1.0844858
-0.27041796 -1.4477525 1.0899999
-0.043846641 -1.442271 1.0874408
0.0011459067 -1.442271 1.0805178
0.31860185 -1.442271 1.0816429
0.43628007 -1.442271 1.0898985
0.45788151 -1.4422709 1.0899162
1.1653486 -1.442271 1.0834541
3.3721032 -1.442271 1.0869168
3.4026668 -1.442271 1.0841066
4.8221474 -1.442271 1.083359
4.5016794 -1.2890202 1.0894823
-1.987934 -1.2707437 1.0886393
-1.987934 -1.253907 1.088431
1.0993978 -1.202271 1.0843263
1.3913753 -1.2022711 1.085325
1.4099054 -1.202271 1.0838593
1.7295136 -1.202271 1.08147
2.5406003 -1.202271 1.0889597
3.0897417 -1.202271 1.0811865
3.1803603 -1.202271 1.0821187
3.3789225 -1.202271 1.0868162
4.5920668 -1.202271 1.0823033
4.6188202 -1.202271 1.0880533
4.709621 -1.202271 1.0891578
6.6688366 -1.1895727 1.0815217
6.6864734 -1.1474828 1.0818138
6.6856465 -1.132946 1.0894104
-1.987934 -1.0266132 1.0897526
1.492066 -0.91448641 1.0850682
-2.2279339 -0.86227965 1.0847532
6.6568141 -0.62623042 1.0848496
6.6330919 -0.56137592 1.0848622
-2.2279339 -0.53678161 1.0885253
6.6298819 -0.50496924 1.0853425
-2.2279339 -0.31388974 1.0826554
4.815187 -0.2722708 1.0887797
6.6322446 -0.19442165 1.0847288
6.6261292 -0.086942434 1.0883703
-1.987934 0.19422966 1.0891194
6.5757742 0.44596624 1.0864623
6.5733061 0.48934186 1.0885051
-1.987934 0.49950194 1.0828662
-2.2279339 0.50295842 1.0844646
6.5562582 0.78894931 1.0864936
-1.9879341 0.82975608 1.0864315
1.372066 1.0004539 1.0836295
1.492066 1.0047032 1.0854965
6.5392203 1.0883892 1.0806758
6.5291433 1.2654798 1.0827701
6.52665 1.3093204 1.0855167
6.258337 1.4480062 1.0816536
6.2577887 1.457639 1.0888276
6.5110636 1.5832287 1.0817815
-2.2279339 1.7479131 1.0842298
-1.8834592 1.787729 1.0893955
-1.4510893 1.787729 1.0840672
-1.987934 1.8272986 1.0849926
6.5119476 1.919759 1.0835768
-1.9879341 1.9209975 1.0800326
-1.1863564 2.027729 1.0840005
-0.73116463 2.027729 1.0839174
-0.26220322 2.027729 1.0888832
1.4389139 2.107729 1.0870291
-2.2279339 2.1428947 1.0854785
6.4840131 2.4106998 1.0897549
6.2001915 2.4698939 1.0885372
6.472065 2.6206784 1.0898585
6.4462781 2.7218056 1.0855662
6.4433699 2.7729161 1.0893972
4.7816792 2.8463247 1.0844615
6.4364038 2.8953481 1.0873983
-1.9879341 3.2055888 1.0816711
-1.9879339 3.2815948 1.081444
6.1509666 3.3350072 1.0832121
6.1439319 3.458647 1.0832469
6.3766441 3.9456065 1.0874851
-1.9879339 3.981735 1.0832618
1.372066 4.0477905 1.0852361
-2.2279339 4.1079803 1.0846089
1.372066 4.155232 1.0862943
-2.2279339 4.2632184 1.0854746
4.7816792 4.2709575 1.0822513
-2.2279339 4.3527598 1.0863382
6.3686104 4.4388533 1.0894908
-1.9879341 4.457922 1.0844598
6.3457394 4.4887486 1.0870426
6.0849543 4.4951615 1.0815524
0.12325362 4.5077295 1.0834829
0.21763796 4.5077295 1.0833961
6.0801754 4.5791507 1.0871787
6.0746264 4.6766653 1.0879407
0.2720657 4.7237601 1.0802977
0.2720657 4.8153205 1.0803323
-1.987934 4.9014373 1.0818479
6.3417253 4.911356 1.0849404
0.032065678 4.9461174 1.0839119
0.032065678 4.9999785 1.0842381
6.3154058 5.0218482 1.0846913
6.3124871 5.0731392 1.0878413
6.0453176 5.1917577 1.0884247
-1.9879339 5.2394047 1.084641
6.3000851 5.2911019 1.0888851
6.2959843 5.3631716 1.0834978
-2.2279339 5.3771458 1.0888351
6.3051739 5.5537443 1.0895669
1.4920659 5.5943995 1.0816412
6.2972069 5.6937528 1.0882133
1.372066 5.817791 1.089218
6.2830048 5.9433489 1.0881221
6.2824812 5.9525604 1.0850809
5.994854 6.0786481 1.0843472
6.2533398 6.1126442 1.0827096
6.2478142 6.209743 1.088917
5.986846 6.2193794 1.0841777
1.4920661 6.3155413 1.0869708
-1.9879339 6.5515947 1.0823026
-1.5503653 6.6127295 1.0804455
-1.1650074 6.6127295 1.0852084
-1.0616088 6.6127291 1.0889223
-0.18159772 6.6127291 1.0883487
-0.07116805 6.6127291 1.0848914
0.063981883 6.6127291 1.0871911
-1.4581149 6.7277288 1.0898749
-1.278712 6.7277288 1.081696
6.2327008 6.8274345 1.0866356
-1.9879339 7.0436735 1.0872571
1.492066 7.0783863 1.0820417
-1.1731176 7.0977287 1.0852743
-0.91558111 7.0977287 1.0803587
-0.31210247 7.0977292 1.0868919
4.808908 7.0977292 1.0856583
4.7816792 7.329905 1.0838352
-2.2279339 7.3583598 1.0856227
-1.987934 7.3817873 1.0885137
-2.2279339 7.6143069 1.0859491
-1.987934 7.6253943 1.082078
5.5142541 7.7477283 1.0888094
5.6706371 7.7477293 1.0823135
5.8025603 7.7477293 1.080929
6.1308126 7.7477293 1.081205
5.0216789 7.8676271 1.0876244
1.492066 7.9836378 1.0879674
4.7816792 8.0538168 1.0809449
3.6598539 8.067729 1.0848583
3.7592039 8.067729 1.0809892
3.7883136 8.067729 1.0801306
3.42644 8.1877289 1.082576
3.5021873 8.1877289 1.0862658
4.2825871 8.1877289 1.0864244
4.4716334 8.1877289 1.0841309
4.7137914 8.1877289 1.0888352
-1.1720483 8.1977301 1.0860345
-1.987934 8.2994518 1.0877917
-1.0810943 8.4377289 1.0873408
-0.22380751 8.4377289 1.0863235
-1.9879339 8.5264187 1.0892678
6.1054974 8.710927 1.0866617
6.0975475 8.8506441 1.0863644
5.8294878 8.9848986 1.0820428
6.0673766 9.0948086 1.0899999
6.0827065 9.1114712 1.0867524
5.8159394 9.223011 1.089192
-1.987934 9.2478561 1.0834661
-2.2279339 9.6014338 1.0888033
1.492066 10.075295 1.0839623
5.5189319 10.218076 1.0895505
5.754117 10.309518 1.0827875
5.512713 10.327381 1.0819545
5.7445402 10.477837 1.0840405
6.001822 10.533008 1.0863067
6.0213442 10.541956 1.08684
-1.987934 10.692864 1.0858541
-2.2279339 10.7076 1.0846517
5.487927 10.762988 1.0871865
5.7180738 10.942966 1.0857911
5.9949398 11.006014 1.0828412
5.7116446 11.055955 1.0897318
5.9600005 11.267994 1.0806663
5.6956697 11.336712 1.0879518
-2.2279339 11.422495 1.0811664
5.9493532 11.455122 1.0893281
5.968462 11.471355 1.0885037
5.9660358 11.513988 1.0878199
5.442348 11.564017 1.0868503
5.6776881 11.652734 1.0827217
-1.9879339 11.674328 1.0876851
5.9552145 11.704166 1.0863717
5.9344063 11.717811 1.0861795
5.9329691 11.743059 1.0846779
-2.2279339 12.061171 1.0840175
5.6315227 12.464077 1.085295
-2.2279339 12.593109 1.0819035
5.8818579 12.64132 1.0818629
5.6206794 12.654654 1.0875988
5.8811188 12.654307 1.0856464
5.8799057 12.675632 1.0890756
-1.9336923 12.75773 1.0815088
-1.0818764 12.75773 1.0800619
-0.92372954 12.75773 1.0821809
-0.72599822 12.75773 1.0804666
0.23348439 12.75773 1.0895224
0.43464637 12.75773 1.0811783
1.7934673 12.75773 1.0874615
2.1009805 12.75773 1.0853442
2.9774547 12.75773 1.0838027
3.2016604 12.75773 1.0846525
3.6331902 12.757729 1.0893577
4.4092898 12.75773 1.0879328
5.3395286 12.75773 1.0881062
5.8940978 12.778277 1.0868351
-1.9487156 12.997729 1.0804496
-1.1022816 12.99773 1.0858096
-0.37162513 12.997729 1.0863819
-0.27518556 12.997728 1.0832537
0.49405676 12.997729 1.0830741
3.3834577 12.997729 1.0894458
3.5730689 12.997729 1.0843544
3.9843974 12.997729 1.0860872
-2.3499184 -1.722271 1.0959978
-1.3661073 -1.722271 1.0992587
-0.41791052 -1.7213333 1.09
1.4207677 -1.722271 1.0930095
2.1183243 -1.722271 1.0997087
4.2760487 -1.7219849 1.09
4.7213902 -1.722271 1.0978165
5.1026826 -1.722271 1.0978496
5.9157896 -1.722271 1.0987608
-0.4990449 -1.7197955 1.09
4.263938 -1.7106228 1.09
4.4352274 -1.7150499 1.09
-2.0490286 -1.702271 1.0906311
-1.6412904 -1.702271 1.0983398
-1.5661923 -1.702271 1.0999738
-0.079599306 -1.701484 1.09
0.17904896 -1.702271 1.0945914
0.57184994 -1.702271 1.0920532
0.62316775 -1.702271 1.0971273
1.0987108 -1.702271 1.0923958
1.5105261 -1.702271 1.0994092
1.9412656 -1.702271 1.0967567
2.2993033 -1.702271 1.0981759
2.8868573 -1.702271 1.0929222
3.512569 -1.7085211 1.09
4.3463535 -1.7030607 1.09
5.1373878 -1.702271 1.0975801
5.2827225 -1.702271 1.0927404
5.4087625 -1.702271 1.0914409
-0.96198249 -1.6902056 1.09
3.9007368 -1.689513 1.0900002
4.0526581 -1.680428 1.09
4.2289824 -1.6873797 1.09
4.0891395 -1.6613938 1.09
4.2371044 -1.6699543 1.09
4.0289855 -1.6501358 1.09
3.691283 -1.6378285 1.09
-0.98097724 -1.6185731 1.09
-0.73028898 -1.6111665 1.0900002
4.1286583 -1.6191788 1.09
4.1175098 -1.6060903 1.09
6.4322958 -1.6092641 1.0943705
-1.072934 -1.596781 1.0957019
4.0394549 -1.5932931 1.09
-0.52510309 -1.5847409 1.09
-0.21246241 -1.5714308 1.09
-0.28936654 -1.5629261 1.09
3.7843709 -1.5606376 1.09
3.9616575 -1.5653543 1.09
5.2816792 -1.558265 1.0969079
4.4427958 -1.5136448 1.09
5.151679 -1.5105062 1.09088
-0.52846742 -1.5003515 1.0900002
3.5810521 -1.5017846 1.09
4.0890632 -1.5042974 1.09
3.8359654 -1.4854424 1.09
-0.99335009 -1.460879 1.09
-0.89851308 -1.4654086 1.09
-0.83819044 -1.4655931 1.09
-0.68378031 -1.4698735 1.09
3.9521315 -1.469794 1.09
-0.28544447 -1.4532404 1.09
-0.10982834 -1.4568477 1.09
-2.0435503 -1.4422711 1.0930207
-0.80660778 -1.4440527 1.09
0.17777877 -1.442271 1.09523
1.4166164 -1.442271 1.095822
2.6386292 -1.442271 1.0939416
4.7967701 -1.442271 1.0932841
5.1644125 -1.442271 1.0992035
5.2765975 -1.442271 1.0949509
5.4202499 -1.442271 1.0994521
4.7816792 -1.3976912 1.0958712
-1.9879341 -1.300114 1.0909045
-2.2279339 -1.2638183 1.0912318
-0.057934221 -1.2148596 1.0926433
6.690094 -1.2111101 1.0914811
-1.2083566 -1.202271 1.0905154
0.31097218 -1.202271 1.0959122
1.1379198 -1.202271 1.0954244
1.3947753 -1.202271 1.09129
1.5782429 -1.202271 1.0961225
2.0681829 -1.202271 1.0947123
3.2526634 -1.202271 1.0966207
3.4714718 -1.202271 1.0930827
4.5104623 -1.202271 1.0984032
-1.987934 -1.1536875 1.0935341
-1.987934 -1.1084237 1.0921152
-1.987934 -1.0361333 1.0950747
6.6571217 -0.98368275 1.0986286
4.7816792 -0.81459564 1.0952431
4.7816792 -0.70243669 1.0981901
-2.2279339 -0.57934242 1.0969989
1.372066 -0.48929566 1.0920714
5.0216789 -0.4839907 1.0901737
6.6276531 -0.46579683 1.0953825
6.626493 -0.44539768 1.0923569
6.645237 -0.42276025 1.0937992
1.3720659 -0.36193997 1.0979699
6.3615332 -0.36563551 1.0988089
1.372066 -0.021269262 1.0904737
6.6023641 -0.021345377 1.094388
1.3720661 0.042907953 1.0966862
6.5941219 0.12350059 1.0920199
6.5734682 0.48649228 1.0984707
6.5721502 0.50965738 1.0962981
-2.2279339 0.59049809 1.0977461
6.5619164 0.68951201 1.0944877
-2.2279339 0.76389784 1.0951159
6.5507951 0.88495219 1.0947728
1.372066 1.0398448 1.0933444
-2.2279339 1.1033607 1.0951363
6.2722702 1.2031385 1.0941321
-2.2279339 1.2910211 1.0978044
6.5467854 1.3074985 1.095106
6.2660828 1.3118777 1.0997416
1.492066 1.3332473 1.0971417
-1.987934 1.366111 1.0955889
6.529583 1.6098236 1.0920327
4.9407425 1.7577291 1.0914868
-1.846344 1.787729 1.0990994
-0.72078973 1.787729 1.097073
1.2221165 1.787729 1.0994571
6.2270379 1.998077 1.0910735
-1.2691114 2.027729 1.0908999
-1.1904658 2.027729 1.0976977
-0.65673965 2.027729 1.0941248
0.015325069 2.027729 1.0996847
0.40044901 2.027729 1.0971241
6.5054493 2.0339727 1.0961001
-2.2279339 2.235003 1.0903425
4.7816792 2.2842553 1.0921589
6.491087 2.2863791 1.0944881
-2.2279339 2.441371 1.0911489
4.7816792 2.4835112 1.0994159
-2.2279339 2.5899343 1.0971841
-2.2279339 2.8856764 1.093538
6.4286604 3.0314336 1.0971513
-1.987934 3.0400589 1.0961354
-1.9879341 3.0649889 1.0931795
-1.9879339 3.1151257 1.0971069
6.4212999 3.1607857 1.0970263
6.1598568 3.1787639 1.0948656
6.4178977 3.220587 1.0971338
-1.9879339 3.4934225 1.099436
1.4920661 3.4996505 1.0941864
1.492066 3.63692 1.0963693
6.4094143 3.7217479 1.0952063
1.372066 3.7441993 1.0994722
6.4047136 3.8043637 1.091603
6.1081572 4.0873685 1.0968008
6.3645802 4.1576266 1.0926218
6.3575249 4.2816167 1.096827
-2.2279339 4.3485322 1.0933008
6.3344336 4.6874495 1.0960753
6.065948 4.8291845 1.0985003
0.032065678 5.0063629 1.0943787
5.0216789 5.0000954 1.0902061
4.9958782 5.067729 1.0980791
6.3032708 5.2351198 1.0900891
6.0188823 5.6563506 1.0968273
6.0087361 5.8346686 1.0983022
1.372066 5.9586039 1.0956768
6.2552009 6.0799303 1.0973742
6.2684832 6.1985688 1.096282
5.987752 6.2034612 1.0904303
-2.0110092 6.462729 1.0927739
-1.987934 6.5141792 1.098914
1.372066 6.5149021 1.0959567
-1.3830686 6.6127291 1.09624
-1.0731115 6.6127291 1.0968456
-0.34485394 6.6127291 1.0904615
6.2425261 6.6547594 1.0974935
0.1570657 6.6957979 1.0939567
6.2200274 6.6980906 1.099363
-1.7121801 6.7277288 1.0907749
-1.510398 6.7277288 1.0927421
-0.99046612 6.7277288 1.0920397
-0.84416467 6.7277288 1.0945897
1.4920659 6.7262831 1.0996766
1.372066 6.8685789 1.0951337
0.2720657 6.8712668 1.097731
0.2720657 6.9625254 1.0978856
-1.8535281 6.9777288 1.0914588
-1.5612251 6.9777288 1.094528
-0.23788801 6.9777288 1.0900626
-1.1448157 7.0977297 1.0915492
5.0134301 7.0977287 1.0963813
1.492066 7.2140193 1.0967925
6.2070298 7.2785954 1.0989348
4.7816792 7.3378668 1.0967617
5.9125123 7.5257688 1.0921029
5.0216789 7.6497383 1.0935559
6.0222015 7.7277288 1.0959978
6.1814041 7.7289591 1.0949528
1.372066 7.7484698 1.092921
5.3378978 7.7477293 1.0982152
5.6450195 7.7477293 1.0902795
4.8100219 8.0077295 1.0908834
5.0186672 8.0077295 1.0919667
5.3335018 8.0077295 1.0958521
5.4123964 8.0077295 1.0961654
5.4366646 8.0077295 1.0942756
5.5150604 8.0077295 1.0939105
5.7212343 8.0077295 1.0974308
1.372066 8.0303116 1.0902637
3.9111953 8.067729 1.0958431
4.3675041 8.067729 1.0961149
4.6275854 8.067729 1.0945424
-2.2279339 8.0732737 1.099509
0.2720657 8.0724983 1.0907019
1.492066 8.0901756 1.0936592
2.8165293 8.1877289 1.0927321
3.8583598 8.1877289 1.0925934
4.6389279 8.1877289 1.0946997
-1.8379593 8.1977301 1.0975178
-1.611593 8.1977301 1.0941166
-1.3618895 8.1977301 1.0911001
-1.0154264 8.1977301 1.0963339
-0.56881326 8.1977301 1.0998814
0.017689835 8.1977301 1.0957351
6.1535525 8.2184391 1.0916572
4.9280815 8.2477303 1.0918313
5.1070762 8.2477303 1.093791
5.6211562 8.2477303 1.0924389
5.7678804 8.2477303 1.0958309
1.492066 8.2733421 1.0976374
6.1290417 8.2971497 1.0984025
6.1251955 8.3647423 1.0979742
1.372066 8.4281712 1.0908788
-1.5977234 8.4377289 1.0953213
-0.31817716 8.4377289 1.0955952
-2.2279339 8.5001268 1.0966207
1.492066 8.5978966 1.0914273
1.372066 8.7181215 1.0973295
5.6040611 8.7219553 1.0956607
1.372066 8.752779 1.092175
1.372066 8.8100481 1.097867
-2.2279339 8.8203497 1.0931548
1.492066 8.8363323 1.0932101
1.4001291 8.8477297 1.0969024
5.8373837 8.8461304 1.0968471
5.9361429 9.0047169 1.09
6.008358 9.0070639 1.09
5.8995414 9.0354347 1.09
5.9700346 9.1404772 1.09
-2.2279339 9.1760826 1.0956016
5.8593454 9.1868458 1.09
5.8689823 9.2040148 1.09
6.0014496 9.2057734 1.09
5.8570271 9.2980556 1.09
5.8443608 9.3019676 1.09
5.9622955 9.3167868 1.09
6.0421257 9.329895 1.09
5.8905153 9.332654 1.09
-1.9879339 9.3597326 1.091491
5.8477049 9.3895674 1.09
5.8428221 9.4166956 1.09
-2.2279339 9.4544239 1.0985043
6.047132 9.4925327 1.0900002
5.8461676 9.5217705 1.09
5.8679323 9.5670156 1.09
5.799582 9.5831108 1.09
5.9759235 9.5897646 1.09
6.0586953 9.6373777 1.09
6.0218034 9.6840897 1.09
5.8171496 9.6906452 1.09
5.9713688 9.6973524 1.09
5.8607988 9.8753052 1.09
5.888103 9.8762398 1.09
5.9062243 9.8827991 1.09
5.9340305 9.9052362 1.09
6.0535126 9.9766026 1.0989254
-2.2279339 10.106943 1.0910008
6.0415387 10.187046 1.0975548
5.7562208 10.272542 1.0964681
5.7548923 10.295897 1.0982722
1.372066 10.414707 1.095773
-2.2279339 10.494447 1.0955679
-2.2279339 10.606377 1.0914807
-1.987934 10.62705 1.0944744
5.9960313 10.63476 1.0941545
5.7317667 10.702323 1.0927315
6.011795 10.709781 1.0987623
5.9817114 10.88642 1.0924925
5.9793339 10.92822 1.0932444
5.9682841 11.122396 1.0989106
-2.2279339 11.318567 1.098866
-1.9879341 11.76424 1.0962451
5.6652031 11.872163 1.0950217
5.6478949 12.176349 1.0905303
-1.987934 12.336372 1.0934072
5.9176841 12.363744 1.0974004
5.884439 12.595953 1.0959426
5.9005976 12.664051 1.0913854
-1.987934 12.709673 1.093242
-1.7095741 12.75773 1.0985882
-1.5864913 12.75773 1.0945989
-0.10775626 12.75773 1.0940334
1.2021453 12.75773 1.0940535
1.374642 12.75773 1.091221
3.4017782 12.75773 1.0997819
3.8781636 12.75773 1.0974554
5.1031137 12.75773 1.0930823
5.8735552 12.787234 1.0966147
2.9170661 12.884254 1.0927447
2.9170661 12.89757 1.0949655
-1.987934 12.914286 1.097311
-2.1223567 12.997728 1.0947962
-2.0568252 12.997729 1.0988989
-1.922735 12.997728 1.0992328
-1.9118515 12.997729 1.0961832
-0.93417776 12.997729 1.0905962
-0.2776624 12.997729 1.0986207
-0.017885745 12.99773 1.092074
0.94867647 12.997729 1.0986209
3.6862116 12.997729 1.0901256
3.9282498 12.99773 1.0966976
4.5515385 12.997729 1.0903654
5.4354925 12.997729 1.0990243
5.6871052 12.997728 1.0913248
5.8583336 13.25773 1.0968006
-1.9251603 -1.722271 1.1056243
0.082438484 -1.722271 1.1027253
0.30340287 -1.722271 1.1007309
0.77429825 -1.722271 1.1037437
1.8602868 -1.722271 1.1027772
3.2236936 -1.722271 1.1006886
6.3611827 -1.722271 1.1030015
-1.6555513 -1.702271 1.1040958
0.43485945 -1.702271 1.108495
0.72640312 -1.702271 1.1025422
0.81047797 -1.702271 1.1068066
0.92717946 -1.702271 1.1015863
2.9105945 -1.702271 1.1029594
2.9732559 -1.702271 1.1053169
3.3501158 -1.7022709 1.1068181
3.4138508 -1.702271 1.108216
5.3538413 -1.702271 1.1033386
6.436995 -1.6918479 1.1036737
-1.072934 -1.5723801 1.1052463
6.4248943 -1.4791824 1.1059818
5.151679 -1.4613537 1.1031693
5.151679 -1.4511058 1.1081496
-2.1110535 -1.442271 1.104823
-1.4728007 -1.442271 1.1067262
0.20626906 -1.442271 1.1023397
0.33276427 -1.4422709 1.1035727
2.0525963 -1.442271 1.1042099
5.6178942 -1.442271 1.1034461
6.1415291 -1.442271 1.1011972
6.4226847 -1.4403574 1.1018773
-0.057934225 -1.4156821 1.103372
-2.2279339 -1.3013319 1.1014652
-0.057934221 -1.2268838 1.1054926
-1.9319149 -1.202271 1.1043611
-1.617322 -1.202271 1.1057291
-1.3341322 -1.202271 1.1044306
-1.1772674 -1.202271 1.108706
1.3541973 -1.202271 1.1009979
1.5806438 -1.202271 1.102932
2.372725 -1.202271 1.101872
3.063458 -1.202271 1.1020938
5.0216789 -0.99862003 1.1077427
-2.2279339 -0.81881243 1.101531
6.6446943 -0.76529175 1.1094013
5.0216789 -0.73984319 1.1017723
-1.987934 -0.65104014 1.1070404
-1.987934 -0.59703314 1.1050856
6.6524224 -0.54903799 1.106156
6.3628855 -0.38939679 1.1060102
-1.9879341 -0.35874528 1.1077404
6.3571911 -0.28933042 1.1086055
6.6273079 -0.10765254 1.107154
6.6104813 0.18805373 1.1060989
-2.2279339 0.23428261 1.101786
6.5858316 0.2692143 1.1066513
1.492066 0.4428992 1.1025317
-2.2279339 0.45387185 1.1097469
-2.2279339 0.84110296 1.1080592
-2.2279339 0.87375414 1.104605
-1.9879341 0.94523489 1.1093285
1.372066 1.5876498 1.1004536
-2.2279339 1.6840672 1.1012284
4.9618344 1.7577291 1.1096005
-1.7894905 1.787729 1.1085429
-1.0260594 1.787729 1.1032343
-0.54339939 1.787729 1.102631
1.2465607 1.787729 1.1093769
1.372066 1.9759557 1.1082522
-2.2279339 1.9953814 1.1093102
6.4874926 1.9974829 1.106372
-1.9678437 2.027729 1.1058558
-1.690999 2.027729 1.1047508
0.36816818 2.027729 1.109205
5.0216789 2.2735355 1.1039796
6.4565401 2.5414598 1.1010967
-1.987934 2.5794346 1.1049097
-2.2279339 2.6533136 1.1046565
6.1876268 2.6907153 1.1043293
6.4463 2.7214279 1.1017327
-1.9879341 2.7991059 1.1060079
6.4403863 2.825356 1.1071622
-2.2279339 2.9363315 1.1043057
1.492066 3.0156226 1.1054535
6.4275007 3.0518177 1.1086397
-1.9879341 3.1241076 1.1094193
6.4216714 3.1542745 1.1080005
-1.9879341 3.227803 1.1049583
-1.9879339 3.2918308 1.1000891
5.0216789 3.2929564 1.1001271
-1.9879339 3.421432 1.1043026
-2.2279339 3.6888947 1.1012039
1.372066 3.6947815 1.1088885
1.372066 3.7455835 1.1025887
2.9132814 3.7547781 1.1099999
4.1980262 3.7536798 1.1099999
4.0662036 3.7928138 1.1099999
6.1199579 3.8799832 1.1033556
6.3768368 3.9422212 1.1027544
-2.2279339 3.9837925 1.106827
5.0216789 4.2003798 1.1019814
1.372066 4.2198973 1.108175
4.7816792 4.2737756 1.1098695
6.3581042 4.2714429 1.1017809
5.0216789 4.4953866 1.1039095
0.091081671 4.5077291 1.1084285
1.492066 4.51721 1.1049765
6.3557067 4.6656489 1.1049671
6.3275828 4.8078413 1.1063629
-2.2279339 4.8210144 1.1023792
0.032065678 4.9965053 1.1096394
6.3352251 5.025599 1.1068714
-2.2279339 5.2008595 1.1067554
-2.2279339 5.3288946 1.1089201
6.2966366 5.351717 1.1036339
-2.1871667 5.4327288 1.1006287
-2.1196957 5.4327288 1.1078148
6.2973404 5.6914139 1.1076124
6.2762241 5.7104521 1.107531
1.372066 5.9329801 1.1068342
1.372066 6.5176296 1.1069362
6.2298431 6.5255871 1.1045897
-2.2279339 6.6191015 1.1032606
-0.74000514 6.6127295 1.1062815
6.2185512 6.7240319 1.1006404
6.2176452 6.7399569 1.1051985
-2.2279339 6.9530382 1.1047424
-1.9096893 6.9777288 1.1036782
-1.693319 6.9777288 1.1075875
-0.74799645 6.9777288 1.107006
-0.057388693 6.9777288 1.1034362
6.2007632 7.0366526 1.1028438
1.372066 7.0691566 1.1096212
-1.111074 7.0977297 1.1005707
-0.64938009 7.0977287 1.1049652
-0.26464364 7.0977292 1.1001568
5.0216789 7.1555905 1.1052587
4.7816792 7.2143993 1.102339
4.7816792 7.3706961 1.1048322
1.372066 7.4462686 1.1021886
4.7816792 7.5379953 1.1034265
5.8427987 7.7277288 1.1097265
5.9592352 7.7277293 1.1048572
6.1401739 7.7277288 1.1060162
5.3212957 7.7477288 1.1012464
5.6494036 7.7477288 1.1089371
0.25963047 7.9477291 1.1038972
5.2449193 8.0077295 1.1076221
2.5850632 8.067729 1.1087593
5.8806257 8.0861683 1.1057131
2.5271299 8.0932856 1.1099999
4.5047255 8.0961466 1.1099999
1.9555445 8.1877289 1.1062498
1.987251 8.1877289 1.1024015
4.1775861 8.1877289 1.1024727
-1.8362688 8.1977301 1.1049039
-0.56663191 8.1977301 1.1015607
6.1344986 8.2012386 1.1011133
5.1156487 8.2477303 1.1000049
5.3132954 8.2477303 1.1064398
5.7256184 8.2477303 1.1025193
-1.0751896 8.4377289 1.1005633
-0.21878919 8.4377289 1.1057868
-0.17069972 8.4377289 1.1019275
-0.096441537 8.4377289 1.1021484
-0.045530707 8.4377289 1.1043422
5.8595858 8.4559317 1.1036532
-2.2279339 8.4884281 1.1014708
-2.2279339 8.5310698 1.105765
6.131012 8.614584 1.1044614
6.1024323 8.7647934 1.1007303
6.1014171 8.7826366 1.1000658
6.0953965 8.8884468 1.1022189
-2.2279339 9.1389971 1.1084592
-2.2279339 9.3446198 1.1038226
5.9068737 9.9563751 1.1014744
5.9195232 9.9570932 1.1012172
5.5326147 9.977602 1.1087393
-1.9879341 10.042224 1.1035477
-1.9879339 10.146605 1.1056347
6.0183043 10.243335 1.1032126
1.492066 10.423182 1.1000496
1.492066 10.514098 1.1064626
5.7392373 10.571028 1.1088748
2.1440353 10.61968 1.1099999
1.7354469 10.627384 1.1099999
3.9359939 10.636582 1.1099999
-1.9879339 10.801035 1.1043773
5.4791827 10.916657 1.1041256
1.372066 10.989157 1.1077112
-1.987934 11.040023 1.1082581
5.4717388 11.047476 1.1043751
5.9696183 11.098947 1.1087458
5.4682751 11.108351 1.1079878
5.7026825 11.213465 1.1064036
-1.9879339 11.273371 1.1002333
5.4585199 11.279799 1.1057489
5.698473 11.287453 1.1064382
5.6912727 11.413993 1.1051632
-2.2279339 11.486546 1.1046365
5.4360452 11.674781 1.1022389
5.9319172 11.761553 1.1050367
-1.9879339 11.817204 1.1069554
5.6686211 11.812083 1.1060594
-2.2279339 11.909468 1.1028352
5.9164906 12.032651 1.1048005
5.6474771 12.183687 1.1088331
-1.987934 12.255671 1.1034443
5.9019661 12.287937 1.1055099
-1.0276991 12.75773 1.1093491
-0.30925477 12.75773 1.1098871
3.6352139 12.75773 1.1002142
4.5273871 12.75773 1.1027199
-1.9879339 12.793412 1.1018927
2.1870661 12.816677 1.1008962
5.6094379 12.852224 1.1045263
5.6079593 12.878205 1.1037141
5.3662491 12.901429 1.1016921
2.9170661 12.977619 1.1055826
5.8827128 12.978372 1.1015491
5.8622632 12.985688 1.1006985
-2.0443242 12.997729 1.1019186
-0.7502712 12.997729 1.1032908
-0.72861558 12.99773 1.1098828
2.0021012 12.997729 1.1071359
3.3986554 12.99773 1.1000539
3.4741435 12.99773 1.1023763
4.2929068 12.997728 1.1074345
4.3131766 12.997728 1.1096857
4.8506184 12.997729 1.1032965
5.5807228 12.997728 1.1047182
1.3468313 -1.722271 1.1166798
5.5978956 -1.722271 1.1184733
5.7221889 -1.722271 1.1124185
-1.965492 -1.702271 1.1118542
-1.6414077 -1.702271 1.1168559
-1.4896418 -1.702271 1.1107175
-1.4174497 -1.702271 1.1195273
0.012174822 -1.702271 1.1162461
0.19304338 -1.702271 1.116034
1.3676152 -1.702271 1.1160222
2.0659699 -1.702271 1.1114337
2.9427767 -1.702271 1.1124201
2.9979556 -1.702271 1.1110787
3.1082237 -1.702271 1.1163208
5.0932102 -1.702271 1.1114149
5.3077893 -1.7022709 1.1193929
6.052114 -1.702271 1.1122799
6.2961869 -1.702271 1.1122305
6.3472209 -1.702271 1.1183586
6.4763956 -1.702271 1.114198
6.6941576 -1.6345879 1.1170706
3.4866791 -1.5974138 1.1110634
4.4866791 -1.5898777 1.1121281
6.6889062 -1.5422935 1.1155125
6.426424 -1.5060623 1.1142795
5.151679 -1.4838502 1.117186
-2.077888 -1.442271 1.1194288
-1.4171968 -1.442271 1.1157224
0.6713686 -1.442271 1.111143
5.0292521 -1.442271 1.1199071
5.2816792 -1.44274 1.1194067
5.505794 -1.442271 1.1136953
6.6834722 -1.4467916 1.1168336
4.7816787 -1.4227242 1.1128385
3.471679 -1.3615053 1.1179299
-1.9879339 -1.3036062 1.1153508
5.0216784 -1.2641456 1.1116929
-1.9797955 -1.202271 1.1158006
-1.6727636 -1.2022711 1.1115509
2.0017581 -1.202271 1.116842
4.7252398 -1.202271 1.1147349
1.492066 -1.1616387 1.1173099
6.6656613 -1.1337786 1.1171269
-2.2279339 -1.092042 1.1167094
-2.2279339 -1.0202399 1.1132476
1.372066 -0.82132471 1.1179068
4.7816792 -0.79679501 1.1135964
6.6643553 -0.75876361 1.113125
-1.987934 -0.71039462 1.1115652
5.0216789 -0.66975534 1.1175264
6.3731356 -0.56953949 1.1181946
6.6317196 -0.53725642 1.1190211
4.7816792 -0.31032589 1.1178017
6.6170564 -0.27954865 1.1165049
6.614078 -0.22721314 1.1110963
-1.987934 -0.15424129 1.1144142
6.3390884 0.028822422 1.1186442
6.3340101 0.11807156 1.1139382
6.6042542 0.29750037 1.1101861
1.372066 0.30813217 1.1173999
6.5722766 0.50743937 1.1161983
6.5538878 0.83061397 1.1112593
-2.2279339 0.94057649 1.110954
-1.9879339 0.97672093 1.1179198
6.5628223 1.0256547 1.1198922
-1.9879341 1.1629018 1.114203
6.2728643 1.1926918 1.1123945
6.5331407 1.1952418 1.1166751
1.3720659 1.298396 1.1155005
1.4920661 1.3016891 1.1165688
1.492066 1.4149212 1.1182442
6.5364671 1.48884 1.1126486
-2.2279339 1.6824272 1.1193179
6.2397842 1.7740736 1.1153297
-1.680577 1.787729 1.1124982
-1.425756 1.787729 1.1178198
-1.0443043 1.787729 1.1192908
-0.27503648 1.787729 1.1182356
1.2694294 1.787729 1.1162075
-2.2279339 1.8151641 1.1172022
5.0216789 1.8975419 1.1147099
6.4930182 1.9003718 1.1184312
-1.9879341 1.9180239 1.1181532
-2.2279339 1.9704437 1.1126049
-0.59875119 2.027729 1.1150318
0.19213103 2.027729 1.110425
1.492066 2.069912 1.1102276
6.4715071 2.2784259 1.1155308
6.4664307 2.3676386 1.1175002
-2.2279339 2.4563417 1.1107854
6.4454269 2.7367666 1.1116309
-2.2279339 3.0871906 1.1135104
6.1620922 3.1394825 1.1184132
6.4358568 3.2570295 1.1143494
-1.987934 3.3368046 1.1161942
6.4099336 3.3605554 1.1155891
6.3972707 3.583101 1.111475
6.4149933 3.6237013 1.119633
-1.9879341 3.6839569 1.1172931
1.8536673 3.7077291 1.1151648
2.7140627 3.7077293 1.1110477
3.1494613 3.7077453 1.11
1.8980956 3.7181277 1.11
2.0732241 3.7156572 1.11
2.6492693 3.7119503 1.11
2.8308594 3.7179205 1.11
3.2967699 3.7102575 1.11
4.536808 3.7161012 1.11
2.1983557 3.7253709 1.11
2.2518809 3.7262974 1.11
3.4547462 3.7205029 1.11
4.172905 3.7267461 1.11
1.6232553 3.7447927 1.11
2.5088096 3.749898 1.11
3.0483401 3.7434814 1.11
3.9831724 3.7424593 1.11
1.6508197 3.7566001 1.11
2.0240517 3.7591138 1.1100001
4.0228086 3.7698617 1.11
4.5281277 3.764493 1.11
1.6501477 3.7747493 1.11
2.4987431 3.7726116 1.11
2.6540895 3.7710876 1.11
2.2397475 3.7896295 1.11
3.0330231 3.7850013 1.11
3.7282844 3.7839007 1.11
1.7736135 3.7951519 1.11
3.5483067 3.7903433 1.11
3.6796105 3.7973194 1.11
3.7216322 3.7929859 1.11
4.728446 3.7945592 1.11
2.6235788 3.8056221 1.11
3.3275747 3.8001471 1.11
4.1421728 3.8066216 1.11
4.1921797 3.8018017 1.11
4.2968836 3.8026886 1.11
2.2585151 3.8111882 1.11
3.7651916 3.8192291 1.11
1.9898775 3.827729 1.11292
2.0297232 3.8262591 1.11
2.7186255 3.82336 1.11
3.9301937 3.8263912 1.11
3.9447248 3.8277287 1.1105772
5.0216789 4.0364642 1.1156164
-1.9879341 4.0848713 1.1196477
1.4920659 4.152792 1.1144824
5.0216789 4.3036876 1.1134993
6.0949287 4.31986 1.1169217
1.372066 4.3398805 1.1187758
6.0925894 4.3609729 1.1157212
1.4920659 4.3941188 1.1153048
-2.2279339 4.4371071 1.1145649
6.3475943 4.456151 1.1175321
6.0851178 4.4922819 1.1136689
-2.2279339 4.7622252 1.116645
0.032065678 4.9660378 1.1107939
6.3169689 4.9943781 1.1148508
6.3139591 5.0472856 1.1151302
5.0010777 5.067729 1.1142293
6.0468683 5.1645031 1.118639
6.2792435 5.657393 1.1131084
6.2553644 6.0770578 1.1118617
6.2604475 6.3397903 1.1107234
6.2338295 6.4555221 1.1170571
1.372066 6.5526743 1.1127802
-0.98328418 6.6127291 1.1188083
1.372066 6.6954355 1.1169802
-1.9475769 6.7277288 1.1125706
-1.8112922 6.7277284 1.1164011
-1.6521502 6.7277288 1.1145211
-1.2976971 6.7277288 1.1189988
-1.9879341 6.7796202 1.1150639
6.2148094 6.7897935 1.1165044
0.2720657 6.9622622 1.117044
-1.331997 6.9777288 1.1188084
-0.58632499 6.9777288 1.116817
1.372066 7.0170121 1.1191831
0.15706569 7.0626812 1.1114048
-1.280406 7.0977292 1.1118751
-0.047481701 7.0977292 1.115062
0.12683192 7.0977292 1.112693
1.372066 7.1845593 1.1142492
5.0216789 7.3531446 1.1195312
-2.2279339 7.4553051 1.1142313
1.492066 7.4730339 1.1152662
5.914084 7.4981441 1.1139972
6.1747813 7.4932775 1.1147102
6.174355 7.5007615 1.1147902
1.372066 7.617044 1.1168169
5.6396875 7.7477288 1.1117527
5.0216789 7.8548412 1.1186702
4.7816792 7.9762759 1.1115301
6.1459751 7.9995546 1.1104245
5.3903341 8.0077295 1.1187658
5.5437689 8.0077295 1.1136245
5.8839812 8.0077295 1.1130818
6.1635771 8.0422487 1.1162086
1.5709826 8.067729 1.1190677
1.6977911 8.067729 1.1120933
1.8679924 8.067729 1.1166449
2.0647171 8.067729 1.1124635
2.2264094 8.067729 1.1164176
2.8213096 8.067729 1.1189651
2.8659401 8.067729 1.1135261
4.096837 8.067729 1.1153846
-2.2279339 8.0737877 1.1109028
-1.9879341 8.0781612 1.11028
1.8455238 8.0745144 1.11
1.9041505 8.0740299 1.11
2.2332675 8.0789623 1.11
2.810957 8.077939 1.11
4.2007847 8.0773277 1.1100001
2.8730869 8.0801258 1.11
3.9136839 8.0826702 1.11
4.5253334 8.0806456 1.11
3.5373733 8.0935774 1.11
4.4315577 8.0957689 1.11
4.6702204 8.0965576 1.11
2.0399122 8.1189651 1.11
2.5708804 8.1133404 1.11
2.5902371 8.1177645 1.1100001
4.0343165 8.11866 1.11
1.5572083 8.1286316 1.11
3.359283 8.1248074 1.11
1.6453812 8.1331196 1.11
2.7637765 8.1318951 1.11
3.4997804 8.1308002 1.11
4.366014 8.13589 1.11
1.9632922 8.1452274 1.11
2.4327283 8.1452122 1.11
4.6396308 8.1458788 1.11
2.6883969 8.1546841 1.11
3.7613621 8.1536045 1.11
4.1370759 8.1548576 1.1100001
2.1741595 8.1648617 1.11
4.2144928 8.1619358 1.11
1.6626886 8.1768055 1.11
3.2900603 8.1729679 1.11
4.6423545 8.1718464 1.11
4.6565142 8.178091 1.11
4.7405577 8.171793 1.11
1.719764 8.1877289 1.1165335
1.7476807 8.1877289 1.1113662
2.3782239 8.1877289 1.1195941
2.3924274 8.1877289 1.1110653
2.6779521 8.180934 1.11
3.0154371 8.1877289 1.1192863
3.2103174 8.1877289 1.1117973
3.7079809 8.1877289 1.1143651
3.8395882 8.1877289 1.1156726
4.5505166 8.1877289 1.1115873
4.5839677 8.1877289 1.1156733
5.1786652 8.2477303 1.1130646
5.3701773 8.2477303 1.1145928
1.372066 8.2998486 1.1169116
-0.056178689 8.4377289 1.1175404
-2.2279339 8.4542847 1.1116571
5.6112618 8.5954075 1.1141315
1.4920661 8.6416616 1.1118259
-2.2279339 8.7689676 1.1115434
1.492066 8.8291435 1.1159557
5.8353615 8.8816576 1.1145396
6.0939436 8.9139748 1.112659
6.0931964 8.9271126 1.111075
6.0914359 8.9580469 1.1161103
-1.987934 10.086076 1.11041
6.0253496 10.119488 1.1108148
1.372066 10.157155 1.1195984
6.0153608 10.295045 1.1113198
-2.2279339 10.355877 1.1106141
5.535656 10.607643 1.11
-2.2279339 10.615339 1.1191492
2.1076272 10.617731 1.1101497
2.1603758 10.61773 1.1124346
2.9270601 10.61773 1.1113611
2.9496384 10.61773 1.117257
3.0286274 10.61773 1.1102736
3.7504737 10.619085 1.11
3.9469442 10.61773 1.1160789
3.9806306 10.618568 1.11
4.1537619 10.61773 1.115993
4.2416854 10.61773 1.1196382
5.2032738 10.61773 1.1157357
5.5596566 10.618977 1.11
5.625617 10.61256 1.11
2.1996431 10.625064 1.11
2.9456782 10.623127 1.11
4.419631 10.625912 1.11
1.5124522 10.638607 1.11
3.0907006 10.636895 1.11
3.841357 10.633053 1.11
3.9854677 10.63784 1.11
4.4726095 10.633552 1.11
4.5603204 10.633595 1.11
2.0517561 10.649046 1.11
4.2123103 10.647129 1.1100001
4.6312222 10.640345 1.11
5.1417766 10.646408 1.11
5.202076 10.642936 1.11
5.5178127 10.648836 1.11
1.6245935 10.654625 1.11
3.3913517 10.655066 1.11
3.4104767 10.65864 1.11
4.1934562 10.65349 1.11
4.7393332 10.651157 1.11
4.856009 10.650263 1.11
5.4922199 10.656739 1.11
5.5081935 10.659184 1.1172704
3.6497729 10.664677 1.11
4.4042239 10.663254 1.11
1.688606 10.670942 1.1100001
1.7986732 10.678095 1.11
3.0031533 10.671325 1.11
5.1250839 10.674672 1.1100001
5.2744164 10.678154 1.11
5.1935029 10.685341 1.11
1.7908708 10.690397 1.11
2.0582919 10.694715 1.11
3.5020852 10.691519 1.11
3.8262849 10.697372 1.11
2.0242915 10.702927 1.11
4.654604 10.707483 1.11
5.9917917 10.709273 1.1109979
2.2094517 10.710626 1.11
2.8969913 10.719372 1.1100001
4.9668212 10.713985 1.11
5.2513113 10.718559 1.11
5.9912333 10.719093 1.1149421
2.6324022 10.724877 1.11
2.8311138 10.723433 1.11
3.4756382 10.720922 1.11
4.0345869 10.724681 1.11
4.2432032 10.722244 1.11
4.5058589 10.725157 1.11
4.9679461 10.727607 1.11
1.5339777 10.73773 1.116625
1.7794577 10.737235 1.11
1.8080939 10.73773 1.1104635
2.4702272 10.737731 1.1163026
3.1259561 10.733632 1.11
3.1928229 10.73773 1.1177816
3.4313641 10.73773 1.1104932
5.0279722 10.73773 1.113513
5.9873495 10.787329 1.1158545
5.7115841 11.057031 1.1119494
-1.987934 11.199215 1.1111808
-1.987934 11.355938 1.113811
-2.2279339 11.367424 1.1171322
5.4520698 11.393147 1.1126708
5.6897521 11.440722 1.1130084
1.4847546 11.55773 1.1120412
5.6715417 11.760763 1.1150129
5.4203701 11.950259 1.1104102
5.6589651 11.981788 1.1181482
-2.2279336 12.130644 1.1114094
5.6482964 12.169289 1.1169319
-2.2279339 12.31543 1.1141425
5.8962722 12.387996 1.1147599
5.6226106 12.620712 1.1152599
-1.9006851 12.75773 1.116908
-1.8468786 12.75773 1.1110843
-1.6927159 12.75773 1.1139345
-1.103019 12.75773 1.1187299
-0.47875243 12.75773 1.1139629
1.4147583 12.75773 1.1136683
1.549871 12.75773 1.1104288
3.0582008 12.75773 1.1167622
3.3344045 12.75773 1.1103455
5.2862649 12.75773 1.1193985
5.8728104 12.800323 1.1171619
-1.9879341 12.825566 1.1161299
5.6069083 12.896665 1.1107575
5.6028943 12.967208 1.1133029
-1.6380522 12.997728 1.1124846
-0.61795795 12.997728 1.1127222
0.23997149 12.99773 1.1102551
0.33785188 12.997728 1.1172638
0.39343917 12.997729 1.1123726
1.2842438 12.997729 1.119835
4.2573471 12.997728 1.111951
5.0266824 12.997729 1.1134501
5.2853355 12.997729 1.1109154
1.3132664 -1.722271 1.1231203
2.3679495 -1.722271 1.1225369
3.0165191 -1.722271 1.1273645
5.9923143 -1.722271 1.1296458
-1.7842538 -1.702271 1.1261357
-1.1810335 -1.702271 1.1219952
0.0042395042 -1.702271 1.1222843
0.67320168 -1.702271 1.1205564
0.82620013 -1.702271 1.1293076
1.3422937 -1.702271 1.1234632
1.6368111 -1.702271 1.120357
1.9129684 -1.702271 1.1235876
2.3790765 -1.702271 1.1241391
4.9912081 -1.702271 1.1201832
5.3010278 -1.702271 1.1297575
6.1853008 -1.702271 1.1204093
6.4974113 -1.702271 1.123093
6.4296064 -1.5619998 1.1260381
-2.2279339 -1.5536735 1.1278806
6.429266 -1.5560093 1.1224322
5.2816792 -1.4508978 1.1210144
0.61464417 -1.442271 1.1215307
0.66065049 -1.442271 1.1267402
1.1189404 -1.442271 1.1253798
2.587867 -1.442271 1.1245785
2.6584225 -1.442271 1.1298171
3.2539811 -1.442271 1.1217921
6.0665288 -1.442271 1.1262965
6.2611184 -1.442271 1.1212513
-1.9879339 -1.415604 1.1223491
3.471679 -1.3934728 1.128023
-0.057934217 -1.3514593 1.122151
1.5596133 -1.202271 1.1211039
1.8429912 -1.202271 1.1269348
1.8924565 -1.202271 1.1228901
4.5041666 -1.202271 1.1218809
1.3720661 -1.0949453 1.1211696
5.0216789 -0.97740537 1.1256075
-2.2279339 -0.95855331 1.1222945
6.6531234 -0.91342276 1.1232258
4.7816792 -0.88757747 1.1291249
6.6497407 -0.85397089 1.1289123
6.3876038 -0.82381916 1.1248769
-1.987934 -0.77866238 1.1280661
4.7816792 -0.76514721 1.124547
6.6294408 -0.49720573 1.1266458
6.6441121 -0.4029814 1.1291087
-2.2279339 -0.098923564 1.1256642
-1.987934 0.10552084 1.1255708
-1.9879341 0.36792535 1.121882
-2.2279339 0.44232595 1.124429
6.5597224 0.72807199 1.1252098
1.372066 0.83578479 1.123425
1.492066 0.84458733 1.1246359
6.5712123 0.87820339 1.1214838
-1.987934 1.0151775 1.1206491
1.372066 1.0574671 1.1260107
1.492066 1.1112096 1.1212549
-2.2279339 1.2736034 1.1262718
6.5395765 1.4341934 1.1226341
-2.2279339 1.486742 1.1271915
1.4920659 1.5084199 1.1297836
6.5145245 1.5224123 1.1272699
-2.2279339 1.5990371 1.1270449
4.8256063 1.7577291 1.1260579
-1.4777483 1.787729 1.1248747
-0.58076835 1.787729 1.1260267
4.7816792 1.7927952 1.1263466
-1.9879339 1.9567573 1.1267613
6.4876633 1.9944891 1.1244686
1.492066 2.0006444 1.1214263
5.0216789 2.0066056 1.1291815
-1.7288635 2.027729 1.1266059
-1.1267698 2.027729 1.1293197
-0.83822453 2.027729 1.1264831
-0.80995357 2.027729 1.1239054
-0.24081692 2.027729 1.1264825
0.34360555 2.027729 1.1274428
4.7816792 2.0779753 1.1223078
6.5030417 2.0762811 1.1247743
-1.9879339 2.1037488 1.1224124
5.0216789 2.2208557 1.1239783
6.4672561 2.3531258 1.1259813
4.7816792 2.4221067 1.122833
4.7816792 2.6476765 1.126675
6.4452209 2.7403874 1.1224966
-2.2279339 2.8543677 1.1201917
-1.9879341 2.853647 1.1239188
-2.2279339 2.8612742 1.1285365
1.4472179 3.0077291 1.1267494
1.372066 3.0811327 1.1200168
5.0216789 3.0932329 1.1241958
6.1639915 3.1061053 1.1274676
6.1610556 3.1577003 1.1218009
6.4192395 3.1970077 1.1263952
-1.987934 3.2360673 1.1297555
2.5530882 3.7077289 1.1235654
1.492066 3.7577553 1.1245224
1.372066 3.7790117 1.126137
1.492066 3.8104904 1.1239264
3.4886765 3.827729 1.1284983
3.7355518 3.827729 1.1282477
4.5738339 3.827729 1.1284086
6.3999004 3.8889501 1.1200697
5.0216789 4.0030169 1.1272967
1.492066 4.0874572 1.1260955
-1.9879339 4.1562085 1.1258178
6.38134 4.215147 1.1238763
1.372066 4.2630334 1.1236739
1.4920659 4.3610353 1.1262577
1.372066 4.4086695 1.1260834
-1.9879341 4.538877 1.124233
4.7816792 4.5671988 1.1238972
6.3402767 4.5847549 1.1214001
6.329917 4.7668214 1.1283275
6.3265848 4.8253765 1.1203461
6.0637035 4.8686419 1.1256648
6.3208795 4.9256582 1.1246675
6.309166 5.1315155 1.1239951
6.302083 5.2559891 1.1205589
-1.987934 5.3897533 1.1215351
6.2934752 5.4072814 1.1241004
1.4771754 5.4277291 1.1235482
6.0166006 5.6964478 1.1248668
6.2745528 5.7398243 1.1281797
6.2714081 5.7950912 1.1273695
1.372066 6.060751 1.1253623
1.372066 6.0701256 1.1232042
6.2549243 6.0847902 1.1283478
5.9805508 6.330029 1.1298957
1.372066 6.3806615 1.1205301
-2.2279339 6.5132031 1.127281
1.4920661 6.5150018 1.1215751
5.9671307 6.5658741 1.1272738
-1.2449311 6.6127291 1.1279578
-0.98055339 6.6127291 1.1249368
5.9633555 6.6322193 1.122373
6.2220607 6.6623521 1.1247833
-1.9879341 6.7107339 1.1291963
-1.6086204 6.7277288 1.129889
-1.2996444 6.7277288 1.1212485
5.947053 6.918735 1.1294619
-0.25741178 6.9777288 1.1228863
-0.02032645 6.9777288 1.1276257
0.11547381 6.9777288 1.1210724
0.2720657 7.0839372 1.1244456
-1.5934575 7.0977292 1.1205852
5.9355922 7.1201487 1.1290092
0.20620348 7.1777291 1.1249548
5.0216789 7.3555436 1.120333
6.1774969 7.4455442 1.1253848
5.0216789 7.4752035 1.1255524
1.372066 7.5833359 1.1252019
5.4687271 7.7277288 1.120106
5.7402096 7.7277288 1.1269968
5.9542084 7.7277288 1.121959
5.7957354 7.7477288 1.1291127
5.8568058 7.7477288 1.1242347
5.9386702 7.7477288 1.1222862
6.1579971 7.7882686 1.1205273
0.25075263 7.9477291 1.1211357
-1.9879341 7.9792986 1.1255693
1.372066 8.0015821 1.1278636
4.9736309 8.0077295 1.1283
5.474556 8.0077295 1.1255161
5.721365 8.0077295 1.1215277
5.8102412 8.0077295 1.1274948
2.834259 8.0677299 1.1282327
